ply
format ascii 1.0
comment Created by Where is my plane
element vertex 1823
property float x
property float y
property float z
end_header
-9.46796 12.8796 4.26068
-1.55318 2.08447 0.0147445
-1.56343 2.54858 0
-1.5504 3.14332 -0.0199573
-1.54788 4.04318 -0.0494168
-1.55422 2.09488 0.0744488
-1.55166 2.54319 0.0661878
-1.54589 3.16172 0.0607344
-1.53978 4.04092 0.0493586
-1.54561 2.09069 -0.355741
-1.54722 2.09963 -0.2428
-1.5563 2.10059 -0.164696
-1.55486 2.54536 -0.206296
-1.54337 3.14678 -0.26418
-1.53247 4.04469 -0.35084
-1.5512 2.10205 -0.104687
-1.56675 2.58379 -0.138532
-1.55881 3.2007 -0.184485
-1.5384 4.0926 -0.253609
-1.55473 2.10159 -0.0449403
-1.56722 2.57463 -0.0690525
-1.55151 3.17462 -0.101245
-1.53866 4.05489 -0.150068
-1.47415 3.93986 -0.755773
-1.54098 4.11267 -0.492033
-1.53948 4.12828 0.177662
-1.5512 2.1427 0.150697
-1.62821 4.44002 0.38061
-9.45661 13.1692 1.98868
-1.63206 4.42684 0.849388
-9.42069 12.9142 4.26068
-1.5515 2.09818 0.0148021
-1.56188 2.5671 0
-1.54984 3.17145 -0.0201013
-1.54469 4.08184 -0.0498199
-1.55508 2.11289 0.0748833
-1.55224 2.56623 0.066638
-1.5468 3.19463 0.0612579
-1.53831 4.08425 0.0498193
-1.54712 2.10803 -0.357806
-1.54835 2.11732 -0.244211
-1.55452 2.11431 -0.165335
-1.55328 2.56384 -0.207345
-1.54271 3.17484 -0.266081
-1.53158 4.08763 -0.354104
-1.54904 2.11604 -0.105093
-1.56454 2.60263 -0.139228
-1.55734 3.22915 -0.185793
-1.53654 4.13592 -0.255947
-1.55259 2.11559 -0.0451148
-1.56721 2.59801 -0.0695167
-1.54801 3.19856 -0.101824
-1.53532 4.09353 -0.15129
-1.45832 3.94575 -0.755773
-1.53821 4.15611 -0.496526
-1.53838 4.17664 0.179492
-1.54842 2.157 0.151274
-1.61206 4.45121 0.381014
-1.61428 4.43335 0.849388
-9.34329 12.9167 4.24906
-1.54899 2.11244 0.0148597
-1.55932 2.58619 0
-1.54797 3.20016 -0.0202453
-1.54226 4.12549 -0.0502807
-1.5525 2.12718 0.075173
-1.54964 2.58529 0.0669757
-1.54476 3.22336 0.0616943
-1.5358 4.1279 0.0502801
-1.54449 2.12222 -0.359182
-1.5457 2.13157 -0.245153
-1.55487 2.13261 -0.166292
-1.55326 2.58715 -0.208743
-1.54075 3.20348 -0.267981
-1.52895 4.13115 -0.357367
-1.54642 2.13032 -0.1055
-1.56432 2.62604 -0.140156
-1.55511 3.25791 -0.187102
-1.53363 4.17956 -0.258284
-1.54998 2.12988 -0.0452894
-1.56704 2.62144 -0.069981
-1.54594 3.22729 -0.102549
-1.53272 4.13717 -0.152686
-1.44661 3.95006 -0.755773
-1.54195 4.20239 -0.501581
-1.54379 4.22787 0.181524
-1.55111 2.17349 0.15214
-15.6113 22.0494 3.31712
-9.29251 12.9176 4.24132
-1.55232 2.12859 0.014946
-1.56072 2.60285 0
-1.55097 3.22646 -0.0203893
-1.54677 4.1665 -0.0507414
-1.5565 2.1428 0.0756076
-1.55403 2.60597 0.067426
-1.54818 3.24943 0.0621306
-1.54025 4.1689 0.0507408
-1.54692 2.13881 -0.361246
-1.5485 2.14797 -0.246564
-1.55516 2.14474 -0.16693
-1.55671 2.60833 -0.210142
-1.54524 3.23449 -0.270262
-1.53354 4.17726 -0.361039
-1.55001 2.14622 -0.10611
-1.56554 2.64275 -0.140852
-1.55783 3.28426 -0.18841
-1.53703 4.22083 -0.260622
-1.5536 2.14579 -0.0455511
-1.56922 2.63759 -0.0703291
-1.54992 3.25308 -0.103273
-1.53782 4.1779 -0.154082
-1.43281 3.95509 -0.755773
-1.54004 4.24539 -0.506075
-1.55195 4.29931 0.18437
-1.54892 2.1873 0.152718
-15.5988 22.2039 3.33176
-9.21983 12.9162 4.2297
-1.55039 2.14235 0.0150036
-1.56095 2.62601 0
-1.5493 3.25497 -0.0205333
-1.54449 4.20997 -0.0512022
-1.55706 2.16091 0.0760421
-1.5542 2.62912 0.0678762
-1.54635 3.27796 0.0625669
-1.53791 4.21238 0.0512016
-1.54523 2.15223 -0.362622
-1.5468 2.16145 -0.247505
-1.55605 2.16256 -0.167888
-1.55477 2.62689 -0.211191
-1.54403 3.26267 -0.272163
-1.53177 4.22034 -0.364303
-1.54797 2.16 -0.106516
-1.56344 2.66138 -0.141548
-1.55639 3.31255 -0.189718
-1.53503 4.26403 -0.262959
-1.5545 2.16363 -0.0458129
-1.56925 2.66082 -0.0707933
-1.5475 3.28189 -0.103997
-1.53465 4.22162 -0.155478
-1.419 3.96006 -0.755773
-1.54027 4.29285 -0.51113
-1.56205 4.37531 0.187419
-1.54992 2.20492 0.153584
-15.5638 22.3193 3.34092
-9.14674 12.9089 4.21679
-1.55168 2.15991 0.01509
-1.5594 2.64435 0
-1.54859 3.28298 -0.0206773
-1.54509 4.25765 -0.0517206
-1.55534 2.17445 0.0763318
-1.55261 2.64746 0.0682139
-1.54547 3.30599 0.0630032
-1.53673 4.25535 0.0516623
-1.54636 2.16969 -0.364687
-1.54792 2.17899 -0.248917
-1.55722 2.18014 -0.168846
-1.55571 2.6495 -0.212589
-1.5432 3.29062 -0.274063
-1.53046 4.2632 -0.367566
-1.54913 2.17758 -0.107126
-1.5617 2.67976 -0.142244
-1.55535 3.3406 -0.191027
-1.53516 4.3117 -0.265589
-1.55567 2.18123 -0.0460747
-1.56754 2.67922 -0.0711415
-1.54871 3.31444 -0.104866
-1.53507 4.26929 -0.157048
-1.40517 3.96499 -0.755773
-1.54018 4.34036 -0.516185
-1.58987 4.50327 0.192705
-1.54794 2.2185 0.154161
-2.15781 6.22464 0.531479
-8.28384 23.7978 4.56758
-9.07939 12.9091 4.20647
-1.54996 2.17344 0.0151476
-1.56027 2.66704 0
-1.54769 3.31101 -0.0208213
-1.54368 4.30068 -0.0521813
-1.55644 2.19207 0.0767663
-1.55342 2.67014 0.0686642
-1.54652 3.33859 0.0635268
-1.53696 4.30308 0.0521807
-1.54452 2.18315 -0.366063
-1.54894 2.19657 -0.250328
-1.55539 2.19369 -0.169484
-1.55399 2.66784 -0.213638
-1.5443 3.32312 -0.276344
-1.52886 4.30611 -0.37083
-1.55019 2.1952 -0.107736
-1.56234 2.70249 -0.143172
-1.55621 3.37322 -0.192597
-1.53497 4.35942 -0.268218
-1.55384 2.1948 -0.0462492
-1.56822 2.70196 -0.0716057
-1.54762 3.34251 -0.10559
-1.53351 4.31231 -0.158444
-1.39132 3.96987 -0.755773
-1.53977 4.38791 -0.52124
-1.61353 4.62204 0.197583
-1.54874 2.23618 0.155027
-2.12962 6.21327 0.529861
-8.71776 12.6936 1.88861
-8.20712 23.8451 4.57115
-9.0149 12.913 4.19743
-1.55105 2.19107 0.015234
-1.561 2.68976 0
-1.54873 3.34362 -0.0209941
-1.54367 4.34846 -0.0526997
-1.55456 2.20565 0.077056
-1.5516 2.68853 0.0690019
-1.54527 3.36669 0.0639631
-1.53687 4.35087 0.052699
-1.54545 2.20067 -0.368127
-1.54699 2.2101 -0.25127
-1.55637 2.21133 -0.170441
-1.55466 2.69051 -0.215037
-1.54311 3.35113 -0.278244
-1.52863 4.35375 -0.374502
-1.55115 2.21285 -0.108346
-1.56285 2.72525 -0.144101
-1.5548 3.40134 -0.193905
-1.53446 4.40719 -0.270848
-1.55482 2.21246 -0.046511
-1.56877 2.72474 -0.07207
-1.54844 3.37515 -0.106459
-1.53332 4.36008 -0.160015
-1.37745 3.97471 -0.755773
-1.53906 4.43552 -0.526295
-1.62989 4.72213 0.201649
-1.54943 2.2539 0.155893
-2.11749 6.24899 0.532288
-8.6706 12.7199 1.888
-8.12067 23.8643 4.56937
-8.94775 12.9126 4.18711
-1.54916 2.20464 0.0152916
-1.5616 2.71252 0
-1.54746 3.37173 -0.0211381
-1.54169 4.39158 -0.0531605
-1.55547 2.22333 0.0774905
-1.55215 2.71128 0.0694521
-1.54592 3.39937 0.0644866
-1.53646 4.3987 0.0532174
-1.54344 2.21416 -0.369503
-1.54781 2.22774 -0.252681
-1.55724 2.229 -0.171399
-1.5552 2.71323 -0.216436
-1.54381 3.38372 -0.280525
-1.52808 4.40145 -0.378173
-1.552 2.23054 -0.108956
-1.56322 2.74805 -0.145029
-1.55526 3.43405 -0.195475
-1.53364 4.45502 -0.273477
-1.55283 2.22606 -0.0466856
-1.5667 2.74321 -0.0724181
-1.54905 3.40784 -0.107328
-1.53281 4.4079 -0.161585
-1.36516 3.98414 -0.756666
-1.53803 4.48318 -0.53135
-1.63109 4.77981 0.203885
-1.55002 2.27164 0.156759
-2.08146 6.2138 0.528647
-8.6178 12.7377 1.88617
-8.04672 23.9205 4.57473
-8.82046 12.8244 4.14838
-1.5472 2.21822 0.0153492
-1.56205 2.73531 0
-1.54809 3.40443 -0.0213109
-1.54106 4.43946 -0.0536788
-1.55342 2.23694 0.0777802
-1.55256 2.73406 0.0699024
-1.5443 3.42754 0.064923
-1.53574 4.44659 0.0537358
-1.54418 2.23174 -0.371567
-1.54569 2.24131 -0.253622
-1.55515 2.24261 -0.172037
-1.55312 2.73164 -0.217485
-1.54429 3.41635 -0.282806
-1.52722 4.44919 -0.381845
-1.55275 2.24826 -0.109565
-1.56344 2.77088 -0.145957
-1.55348 3.46224 -0.196784
-1.53411 4.50761 -0.276399
-1.55361 2.24378 -0.0469474
-1.56698 2.76605 -0.0728823
-1.54739 3.43602 -0.108053
-1.53199 4.45576 -0.163156
-1.35124 3.98889 -0.756666
-1.53668 4.53088 -0.536406
-1.63349 4.8423 0.206324
-1.5505 2.28942 0.157625
-8.57882 12.776 1.88739
-7.95852 23.9344 4.57205
-8.69662 12.7395 4.11095
-1.54801 2.23592 0.0154356
-1.56236 2.75814 0
-1.54646 3.43261 -0.0214549
-1.54173 4.49212 -0.0542548
-1.55414 2.25468 0.0782147
-1.55283 2.75688 0.0703526
-1.54454 3.4603 0.0654465
-1.5347 4.49452 0.0542541
-1.54482 2.24934 -0.373632
-1.54632 2.259 -0.255034
-1.55583 2.26034 -0.172995
-1.55339 2.75442 -0.218883
-1.54254 3.44448 -0.284706
-1.52764 4.5017 -0.385924
-1.55339 2.26601 -0.110175
-1.56353 2.79375 -0.146885
-1.55354 3.49502 -0.198354
-1.53264 4.55553 -0.279029
-1.55145 2.25742 -0.0471219
-1.56712 2.78893 -0.0733465
-1.5476 3.46879 -0.108922
-1.53246 4.50841 -0.164901
-1.33731 3.99358 -0.756666
-1.5366 4.58335 -0.542022
-1.63233 4.89539 0.208357
-1.55088 2.30723 0.158492
-8.53693 12.81 1.888
-8.63041 12.7378 4.10063
-1.54588 2.24954 0.0154932
-1.56008 2.77665 0
-1.54668 3.46538 -0.0216277
-1.54045 4.5401 -0.0547731
-1.55475 2.27245 0.0786492
-1.55052 2.77537 0.0706903
-1.54255 3.48854 0.0658828
-1.53494 4.54724 0.05483
-1.54535 2.26698 -0.375696
-1.54684 2.27672 -0.256445
-1.5564 2.2781 -0.173952
-1.55351 2.77723 -0.220282
-1.54262 3.47719 -0.286987
-1.52772 4.55427 -0.390004
-1.55393 2.28379 -0.110785
-1.56348 2.81665 -0.147813
-1.55339 3.52784 -0.199924
-1.53243 4.60824 -0.281951
-1.55204 2.27519 -0.0473837
-1.56468 2.80748 -0.0736947
-1.54759 3.5016 -0.109791
-1.53099 4.55638 -0.166471
-1.32336 3.99822 -0.756666
-1.53616 4.63586 -0.547639
-1.63082 4.94852 0.210389
-1.54837 2.32093 0.159069
-7.80946 24.0456 4.58277
-8.56432 12.7358 4.0903
-1.54649 2.2673 0.0155796
-1.56013 2.79954 0
-1.5467 3.4982 -0.0218004
-1.54044 4.59287 -0.0553491
-1.55244 2.28612 0.0789389
-1.55053 2.79824 0.0711406
-1.54239 3.52138 0.0664064
-1.53326 4.59527 0.0553484
-1.543 2.28055 -0.377072
-1.54447 2.29035 -0.257387
-1.55686 2.29589 -0.17491
-1.5535 2.80007 -0.22168
-1.5425 3.50994 -0.289268
-1.52588 4.60216 -0.393675
-1.55436 2.3016 -0.111395
-1.56328 2.83959 -0.148742
-1.55303 3.56071 -0.201494
-1.53187 4.661 -0.284872
-1.55252 2.293 -0.0476455
-1.56456 2.83042 -0.0741589
-1.54737 3.53446 -0.11066
-1.53077 4.60914 -0.168216
-1.3094 4.00282 -0.756666
-1.53692 4.69315 -0.553818
-1.6305 5.00645 0.212625
-1.54855 2.33879 0.159935
-1.68893 5.28306 0.446944
-1.70292 5.29211 1.00212
-8.50639 12.7455 4.08385
-1.54419 2.28095 0.0156372
-1.56003 2.82247 0
-1.5465 3.53107 -0.0219732
-1.54008 4.64569 -0.055925
-1.55286 2.30394 0.0793734
-1.55039 2.82116 0.0715908
-1.54201 3.55427 0.06693
-1.53281 4.64809 0.0559243
-1.54333 2.29824 -0.379136
-1.5448 2.30812 -0.258798
-1.55722 2.31371 -0.175867
-1.55335 2.82295 -0.223079
-1.54217 3.54274 -0.291548
-1.52527 4.65483 -0.397755
-1.55469 2.31945 -0.112005
-1.56294 2.86256 -0.14967
-1.55246 3.59362 -0.203064
-1.53249 4.71855 -0.288086
-1.5529 2.31083 -0.0479072
-1.56429 2.85339 -0.0746232
-1.54694 3.56735 -0.111529
-1.53021 4.66195 -0.169961
-1.29542 4.00736 -0.756666
-1.53578 4.74577 -0.559435
-1.6298 5.06444 0.214861
-1.54862 2.35668 0.160801
-1.67946 5.31745 0.449371
-8.4405 12.7429 4.07352
-1.54461 2.29876 0.0157236
-1.5598 2.84543 0
-1.54808 3.56856 -0.0221748
-1.53782 4.69381 -0.0564434
-1.55317 2.32179 0.079808
-1.55012 2.8441 0.0720411
-1.54143 3.58719 0.0674535
-1.53202 4.70096 0.0565003
-1.57403 2.388 -0.736259
-1.54357 2.31596 -0.381201
-1.54502 2.32592 -0.26021
-1.5547 2.32742 -0.176506
-1.55305 2.84587 -0.224478
-1.54162 3.57557 -0.293829
-1.52584 4.7123 -0.402242
-1.55491 2.33732 -0.112615
-1.56247 2.88556 -0.150598
-1.55168 3.62656 -0.204634
-1.53121 4.77142 -0.291008
-1.55317 2.3287 -0.048169
-1.56388 2.87639 -0.0750874
-1.54631 3.60029 -0.112398
-1.53083 4.71956 -0.171881
-1.28142 4.01186 -0.756666
-1.53579 4.80318 -0.565613
-1.63022 5.12725 0.217301
-1.54859 2.3746 0.161667
-1.6668 5.34231 0.450988
-1.67181 5.32265 1.00569
-8.37738 12.744 4.06449
-1.54493 2.3166 0.01581
-1.55942 2.86842 0
-1.54745 3.60151 -0.0223476
-1.53678 4.74673 -0.0570193
-1.55337 2.33967 0.0802425
-1.5497 2.86708 0.0724914
-1.54259 3.62476 0.0680644
-1.53088 4.75389 0.0570762
-1.5437 2.33371 -0.383265
-1.54514 2.34375 -0.261621
-1.55486 2.34529 -0.177463
-1.55262 2.86881 -0.225876
-1.54087 3.60845 -0.29611
-1.52452 4.76507 -0.406322
-1.55502 2.35523 -0.113224
-1.56185 2.90859 -0.151526
-1.55069 3.65955 -0.206204
-1.53108 4.82909 -0.294222
-1.55333 2.3466 -0.0484308
-1.56571 2.90382 -0.0756676
-1.54546 3.63327 -0.113267
-1.52955 4.77248 -0.173626
-1.26741 4.01631 -0.756666
-1.53542 4.86064 -0.571792
-1.63022 5.19012 0.21974
-1.55118 2.39673 0.162822
-1.654 5.36716 0.452606
-1.65758 5.34256 1.00837
-8.31436 12.7449 4.05545
-1.54514 2.33447 0.0158964
-1.5589 2.89144 0
-1.5466 3.63449 -0.0225204
-1.53538 4.79971 -0.0575953
-1.55347 2.35758 0.080677
-1.54914 2.89009 0.0729416
-1.54156 3.65776 0.068588
-1.53089 4.81163 0.0577098
-1.57581 2.4273 -0.7451
-1.54372 2.35149 -0.385329
-1.54788 2.36577 -0.263504
-1.55492 2.36319 -0.178421
-1.55204 2.89178 -0.227275
-1.54184 3.64595 -0.298771
-1.52434 4.82265 -0.410809
-1.55503 2.37316 -0.113834
-1.56108 2.93165 -0.152454
-1.54949 3.69257 -0.207774
-1.53057 4.88682 -0.297436
-1.55339 2.36452 -0.0486926
-1.565 2.9269 -0.0761319
-1.54439 3.66628 -0.114136
-1.52941 4.83021 -0.175545
-1.25338 4.02071 -0.756666
-1.53467 4.91816 -0.57797
-1.62832 5.24829 0.221976
-1.55092 2.41471 0.163688
-1.62658 5.34428 0.450179
-1.62168 5.29185 0.997651
-8.24881 12.7414 4.04513
-1.54524 2.35236 0.0159828
-1.55824 2.9145 0
-1.54555 3.66752 -0.0226932
-1.53364 4.85272 -0.0581712
-1.55347 2.37552 0.0811116
-1.54844 2.91313 0.0733919
-1.54225 3.69542 0.0691988
-1.52903 4.86465 0.0582857
-1.57784 2.44903 -0.750151
-1.54364 2.3693 -0.387393
-1.54777 2.38366 -0.264915
-1.55213 2.37695 -0.179059
-1.55132 2.91479 -0.228673
-1.54065 3.67891 -0.301051
-1.52378 4.88029 -0.415297
-1.55493 2.39112 -0.114444
-1.56252 2.95916 -0.153615
-1.54999 3.73024 -0.209606
-1.52968 4.9446 -0.30065
-1.55609 2.38666 -0.0490417
-1.56415 2.95 -0.0765961
-1.54504 3.70394 -0.11515
-1.5289 4.88799 -0.177465
-1.2379 4.02036 -0.755773
-1.535 4.98048 -0.58471
-1.61875 5.28261 0.223196
-1.55055 2.43273 0.164554
-1.60791 5.34993 0.450179
-1.6103 5.32103 1.00212
-8.18338 12.7376 4.0348
-1.54524 2.37029 0.0160692
-1.55744 2.93759 0
-1.54428 3.70058 -0.022866
-1.53302 4.91056 -0.0588048
-1.55335 2.39349 0.0815461
-1.54759 2.9362 0.0738421
-1.54079 3.72851 0.0697224
-1.5283 4.9225 0.0589193
-1.57451 2.46267 -0.752677
-1.54345 2.38713 -0.389458
-1.54755 2.40159 -0.266327
-1.55199 2.3949 -0.180017
-1.55046 2.93783 -0.230072
-1.53925 3.7119 -0.303332
-1.52284 4.93797 -0.419784
-1.55473 2.40911 -0.115054
-1.56145 2.98229 -0.154543
-1.55024 3.76795 -0.211438
-1.5284 5.00244 -0.303864
-1.55592 2.40465 -0.0493034
-1.56084 2.96871 -0.0769442
-1.54354 3.73703 -0.116019
-1.528 4.94584 -0.179384
-1.22243 4.01994 -0.754881
-1.5349 5.04286 -0.59145
-1.61184 5.32649 0.224822
-1.55275 2.45498 0.165709
-1.5864 5.34595 0.449371
-1.59032 5.3219 1.00122
-8.11549 12.7294 4.02318
-1.54513 2.38825 0.0161555
-1.55649 2.9607 0
-1.5428 3.73368 -0.0230388
-1.53203 4.96845 -0.0594383
-1.55313 2.41149 0.0819806
-1.54893 2.96372 0.0744049
-1.541 3.76626 0.0703332
-1.52864 4.98518 0.0596104
-1.5633 2.46407 -0.751414
-1.54315 2.40499 -0.391522
-1.54723 2.41954 -0.267739
-1.55175 2.41288 -0.180974
-1.54946 2.96089 -0.231471
-1.53952 3.74954 -0.305993
-1.52151 4.99572 -0.424272
-1.55442 2.42713 -0.115664
-1.56255 3.00988 -0.155703
-1.55025 3.80572 -0.21327
-1.52817 5.06511 -0.30737
-1.55564 2.42267 -0.0495652
-1.55972 2.99187 -0.0774085
-1.54372 3.77479 -0.117033
-1.52671 5.00373 -0.181304
-1.20839 4.02419 -0.754881
-1.53439 5.1053 -0.598191
-1.59751 5.34645 0.225432
-1.55216 2.47305 0.166575
-1.56633 5.34667 0.448966
-1.57312 5.33214 1.00212
-1.54491 2.40623 0.0162419
-1.5554 2.98384 0
-1.543 3.77144 -0.0232404
-1.5321 5.03118 -0.0601295
-1.55281 2.42951 0.0824151
-1.54778 2.98686 0.0748552
-1.5391 3.79942 0.0708568
-1.52711 5.04314 0.0602439
-1.5702 2.49405 -0.758991
-1.54542 2.42705 -0.394274
-1.5468 2.43752 -0.26915
-1.55139 2.43088 -0.181932
-1.55061 2.98841 -0.233219
-1.53768 3.7826 -0.308274
-1.52122 5.05828 -0.429167
-1.554 2.44517 -0.116274
-1.56119 3.03307 -0.156631
-1.55002 3.84353 -0.215101
-1.52752 5.12783 -0.310876
-1.55796 2.44493 -0.0499143
-1.55846 3.01505 -0.0778727
-1.54365 3.81258 -0.118047
-1.52504 5.06167 -0.183223
-1.19294 4.02366 -0.753989
-1.53347 5.1678 -0.604931
-1.5732 5.33282 0.224619
-1.5541 2.49538 0.16773
-1.54628 5.34732 0.448562
-1.63056 2.65003 0.377722
-1.5545 5.3376 1.00212
-1.54459 2.42425 0.0163283
-1.55647 3.01146 0
-1.54108 3.80461 -0.0234132
-1.53318 5.09876 -0.0608782
-1.55506 2.45178 0.0829945
-1.5465 3.01002 0.0753055
-1.53884 3.83726 0.0714676
-1.52663 5.10594 0.0609351
-1.5692 2.51181 -0.76278
-1.5449 2.44498 -0.396339
-1.54626 2.45553 -0.270562
-1.55093 2.44891 -0.182889
-1.54931 3.01154 -0.234618
-1.53748 3.82033 -0.310934
-1.52052 5.1209 -0.434063
-1.55348 2.46324 -0.116883
-1.55969 3.05629 -0.157559
-1.54954 3.88138 -0.216933
-1.52645 5.19061 -0.314382
-1.55745 2.46301 -0.0501761
-1.55705 3.03826 -0.0783369
-1.54333 3.85043 -0.119061
-1.52441 5.12446 -0.185317
-1.17889 4.0278 -0.753989
-1.53351 5.23513 -0.612233
-1.55319 5.33348 0.224415
-1.56381 2.53048 0.16975
-1.52624 5.34789 0.448157
-1.60834 2.63455 0.374671
-1.5345 5.33826 1.00122
-1.54148 2.43806 0.0163859
-1.55508 3.03466 0
-1.5408 3.84246 -0.0236147
-1.53239 5.16161 -0.0615694
-1.5545 2.46987 0.083429
-1.54734 3.03767 0.0758683
-1.53833 3.87514 0.0720784
-1.52572 5.1688 0.0616262
-1.57065 2.5337 -0.767831
-1.54428 2.46293 -0.398403
-1.54562 2.47356 -0.271973
-1.55036 2.46697 -0.183847
-1.54787 3.0347 -0.236016
-1.53704 3.8581 -0.313595
-1.5194 5.18358 -0.438958
-1.5555 2.48557 -0.117697
-1.5603 3.084 -0.15872
-1.54881 3.91927 -0.218765
-1.52635 5.25824 -0.318181
-1.55951 2.48535 -0.0505251
-1.55551 3.0615 -0.0788011
-1.54277 3.88832 -0.120075
-1.52335 5.1873 -0.187411
-1.16482 4.03189 -0.753989
-1.53311 5.30251 -0.619534
-1.53318 5.33407 0.224212
-1.56281 2.54868 0.170617
-1.5116 5.36758 0.449371
-1.62233 2.67831 0.380163
-1.51452 5.33885 1.00033
-1.62722 2.64111 0.818318
-1.54096 2.45612 0.0164723
-1.55582 3.06236 0
-1.54028 3.88035 -0.0238163
-1.53118 5.22452 -0.0622605
-1.55384 2.48798 0.0838636
-1.54575 3.06089 0.0763185
-1.53758 3.91306 0.0726893
-1.5258 5.23651 0.0623749
-1.56942 2.55151 -0.77162
-1.54354 2.4809 -0.400467
-1.54487 2.49162 -0.273385
-1.54969 2.48506 -0.184805
-1.54853 3.06233 -0.237764
-1.53636 3.89591 -0.316256
-1.51786 5.24631 -0.443854
-1.55475 2.5037 -0.118306
-1.55849 3.10728 -0.159648
-1.54966 3.96186 -0.220858
-1.5258 5.32594 -0.321979
-1.55878 2.5035 -0.0507869
-1.55607 3.08922 -0.0793814
-1.54197 3.92625 -0.121089
-1.52326 5.25499 -0.18968
-1.15074 4.03593 -0.753989
-1.53225 5.36996 -0.626836
-1.51591 5.34419 0.224415
-1.58253 2.60098 0.173792
-1.51147 5.44006 0.455033
-1.62836 2.70946 0.383824
-1.50644 5.38202 1.00748
-1.62052 2.65089 0.819609
-1.54033 2.4742 0.0165587
-1.55413 3.08562 0
-1.53951 3.91828 -0.0240179
-1.53094 5.29229 -0.0630092
-1.55307 2.50612 0.0842981
-1.54626 3.08861 0.0768814
-1.53659 3.95102 0.0733001
-1.52403 5.29948 0.0630661
-1.56809 2.56935 -0.775409
-1.5427 2.4989 -0.402531
-1.54663 2.51393 -0.275267
-1.55154 2.5074 -0.186081
-1.54678 3.08555 -0.239163
-1.53542 3.93376 -0.318917
-1.51863 5.31868 -0.449565
-1.55389 2.52186 -0.118916
-1.55876 3.13505 -0.160808
-1.54842 3.99985 -0.22269
-1.52479 5.39369 -0.325777
-1.55794 2.52167 -0.0510487
-1.55645 3.11699 -0.0799617
-1.54092 3.96422 -0.122102
-1.52408 5.32756 -0.192123
-1.13665 4.03992 -0.753989
-1.5296 5.43268 -0.633576
-1.51738 5.42164 0.227465
-1.59932 2.64917 0.176679
-1.50822 5.503 0.459887
-1.50722 5.45839 1.02087
-1.62131 2.67303 0.824772
-1.54223 2.49656 0.0166739
-1.55453 3.11339 0
-1.5385 3.95626 -0.0242195
-1.53024 5.36011 -0.063758
-1.55219 2.52428 0.0847326
-1.54659 3.11637 0.0774442
-1.53534 3.98902 0.0739109
-1.52321 5.36731 0.0638148
-1.56414 2.58308 -0.777934
-1.54175 2.51693 -0.404596
-1.54565 2.53205 -0.276679
-1.55064 2.52554 -0.187039
-1.54712 3.11325 -0.240911
-1.53604 3.97631 -0.321958
-1.51891 5.39112 -0.455276
-1.55553 2.5443 -0.119729
-1.55665 3.15839 -0.161736
-1.54873 4.04254 -0.224784
-1.52466 5.46631 -0.329868
-1.55699 2.53986 -0.0513105
-1.55444 3.14032 -0.0804259
-1.54141 4.0069 -0.123261
-1.52307 5.39538 -0.194391
-1.12254 4.04387 -0.753989
-1.52918 5.50502 -0.64144
-1.51434 5.4847 0.229904
-1.61836 2.70179 0.179855
-1.50714 5.5756 0.465549
-9.32178 15.7099 2.24131
-1.50619 5.53009 1.03338
-1.54137 2.5147 0.0167603
-1.55476 3.1412 0
-1.53724 3.99427 -0.0244211
-1.52909 5.428 -0.0645067
-1.5512 2.54247 0.0851671
-1.54675 3.14417 0.078007
-1.53563 4.03174 0.074609
-1.52328 5.44001 0.0646211
-1.56011 2.59681 -0.78046
-1.5407 2.53497 -0.40666
-1.54456 2.55019 -0.27809
-1.55223 2.54797 -0.188315
-1.54727 3.141 -0.24266
-1.53638 4.01891 -0.324999
-1.51737 5.45882 -0.46058
-1.55444 2.56251 -0.120339
-1.55659 3.18624 -0.162896
-1.54699 4.08061 -0.226615
-1.52405 5.53899 -0.333958
-1.55593 2.55808 -0.0515723
-1.5545 3.16815 -0.0810062
-1.54163 4.04962 -0.12442
-1.52293 5.46807 -0.196834
-1.10842 4.04776 -0.753989
-1.52828 5.57743 -0.649304
-1.51481 5.56228 0.232953
-1.62682 2.73743 0.181876
-1.50686 5.65308 0.471617
-9.2694 15.7466 2.24192
-1.50468 5.60185 1.04588
-1.62247 2.71743 0.835098
-1.5404 2.53286 0.0168467
-1.55481 3.16904 0
-1.53751 4.037 -0.0246515
-1.52881 5.50076 -0.0653131
-1.55011 2.56068 0.0856017
-1.54674 3.17201 0.0785698
-1.53388 4.06982 0.0752199
-1.52286 5.51278 0.0654275
-1.55352 2.60639 -0.781723
-1.5421 2.55728 -0.409412
-1.54594 2.57261 -0.279973
-1.55109 2.56617 -0.189273
-1.54945 3.17327 -0.244758
-1.53644 4.06155 -0.32804
-1.51669 5.53139 -0.466291
-1.55582 2.58502 -0.121152
-1.55418 3.20963 -0.163825
-1.54675 4.12339 -0.228709
-1.52294 5.61174 -0.338049
-1.55736 2.58059 -0.0519213
-1.55656 3.20052 -0.0817025
-1.5398 4.08772 -0.125434
-1.52231 5.54083 -0.199277
-1.09428 4.05161 -0.753989
-1.52817 5.65469 -0.657729
-1.51346 5.6351 0.235799
-1.62996 2.76457 0.183319
-1.50604 5.73062 0.477684
-1.50394 5.67842 1.05928
-1.54191 2.55533 0.0169619
-1.55468 3.19692 0
-1.53574 4.0751 -0.0248531
-1.52805 5.57358 -0.0661194
-1.55149 2.58319 0.086181
-1.54872 3.20438 0.0792452
-1.53362 4.11263 0.075918
-1.52194 5.58561 0.0662338
-1.54688 2.61595 -0.782986
-1.54082 2.57538 -0.411476
-1.54462 2.5908 -0.281384
-1.55242 2.58866 -0.19055
-1.54924 3.2011 -0.246506
-1.53622 4.10425 -0.33108
-1.51553 5.60401 -0.472002
-1.55706 2.60758 -0.121965
-1.55378 3.23754 -0.164985
-1.54623 4.16621 -0.230802
-1.52135 5.68454 -0.342139
-1.55607 2.59887 -0.0521831
-1.55625 3.22845 -0.0822828
-1.53947 4.13055 -0.126593
-1.52249 5.61847 -0.201894
-1.08013 4.0554 -0.753989
-1.52755 5.73202 -0.666154
-1.51163 5.70798 0.238645
-1.63294 2.79177 0.184762
-1.50471 5.80823 0.483751
-9.8586 17.0174 2.41339
-1.50269 5.75505 1.07268
-7.92402 13.4418 4.15871
-1.54071 2.57355 0.0170483
-1.55438 3.22485 0
-1.53722 4.1226 -0.0251123
-1.52549 5.64164 -0.0668681
-1.55273 2.60574 0.0867604
-1.54834 3.23231 0.079808
-1.53309 4.15549 0.0766161
-1.52184 5.66333 0.0670977
-1.5402 2.62551 -0.784249
-1.54196 2.59776 -0.414229
-1.54574 2.6133 -0.283266
-1.55361 2.6112 -0.191826
-1.54885 3.22896 -0.248254
-1.53572 4.147 -0.334121
-1.51387 5.6767 -0.477714
-1.55562 2.62588 -0.122575
-1.55321 3.26549 -0.166145
-1.54715 4.21378 -0.233157
-1.52053 5.76223 -0.346522
-1.55723 2.62146 -0.0525322
-1.55575 3.2564 -0.082863
-1.53887 4.17341 -0.127751
-1.52087 5.69135 -0.204337
-1.06597 4.05915 -0.753989
-1.52641 5.80941 -0.674579
-1.51056 5.78574 0.241694
-1.63826 2.82333 0.186495
-1.50408 5.89072 0.490222
-9.81893 17.0861 2.41827
-1.50092 5.83174 1.08607
-7.88193 13.4777 4.16129
-1.54197 2.59609 0.0171635
-1.55391 3.2528 0
-1.53665 4.16547 -0.0253427
-1.52505 5.71941 -0.0677321
-1.55128 2.62404 0.0871949
-1.54992 3.26478 0.0804834
-1.53398 4.20309 0.0774014
-1.5212 5.74112 0.0679616
-1.53102 2.63087 -0.784249
-1.54297 2.62018 -0.416981
-1.54419 2.63154 -0.284678
-1.55212 2.62948 -0.192784
-1.55044 3.26137 -0.250352
-1.53495 4.18979 -0.337162
-1.51299 5.75426 -0.483833
-1.5566 2.6485 -0.123388
-1.55247 3.29348 -0.167305
-1.54606 4.2567 -0.235251
-1.52045 5.84481 -0.351196
-1.55571 2.63978 -0.052794
-1.55509 3.2844 -0.0834433
-1.53798 4.21633 -0.12891
-1.52003 5.76912 -0.206955
-1.05179 4.06284 -0.753989
-1.52598 5.89168 -0.683566
-1.5102 5.86841 0.244946
-1.64088 2.85064 0.187938
-1.50411 5.97812 0.497098
-9.30927 16.3314 2.3066
-1.49983 5.91326 1.10036
-7.84212 13.5176 4.16516
-1.54054 2.61436 0.0172499
-1.55326 3.2808 0
-1.53751 4.21309 -0.0256018
-1.52408 5.79725 -0.068596
-1.55225 2.64667 0.0877743
-1.54917 3.29278 0.0810462
-1.53287 4.24604 0.0780995
-1.5213 5.82381 0.0688831
-1.52183 2.63619 -0.784249
-1.54384 2.64264 -0.419734
-1.54504 2.65411 -0.28656
-1.55305 2.65209 -0.194061
-1.54969 3.28932 -0.2521
-1.53558 4.23731 -0.340583
-1.51408 5.84153 -0.490768
-1.55744 2.67116 -0.124201
-1.55366 3.32602 -0.168698
-1.54636 4.30437 -0.237606
-1.5198 5.92746 -0.355871
-1.55661 2.66244 -0.053143
-1.55637 3.31695 -0.0841396
-1.53681 4.25928 -0.130069
-1.51991 5.8518 -0.209747
-1.03882 4.07126 -0.754881
-1.52623 5.97882 -0.693115
-1.51052 5.95599 0.248402
-1.64582 2.88234 0.18967
-1.50234 6.06074 0.50357
-9.26443 16.3854 2.30966
-1.49939 5.99962 1.11555
-7.83828 13.6203 4.1884
-1.54153 2.63697 0.0173651
-1.55243 3.30883 0
-1.53636 4.25606 -0.0258322
-1.52384 5.87998 -0.0695175
-1.55057 2.66501 0.0882088
-1.54824 3.32081 0.0816091
-1.53147 4.28903 0.0787976
-1.5196 5.90173 0.069747
-1.51021 2.6373 -0.782986
-1.54457 2.66513 -0.422486
-1.54326 2.6724 -0.287972
-1.55384 2.67473 -0.195337
-1.54876 3.3173 -0.253848
-1.53423 4.28019 -0.343624
-1.51335 5.92405 -0.497296
-1.55563 2.68954 -0.124811
-1.55254 3.35408 -0.169858
-1.54469 4.34739 -0.239699
-1.5186 6.01017 -0.360546
-1.55737 2.68514 -0.0534921
-1.55533 3.34502 -0.0847199
-1.53703 4.30699 -0.131372
-1.518 5.92969 -0.212364
-1.0246 4.07486 -0.754881
-1.52588 6.06604 -0.702663
-1.50903 6.03879 0.251654
-1.64561 2.90542 0.190825
-1.5012 6.14827 0.510446
-2.11317 3.77629 0.527224
-1.49836 6.08604 1.13073
-7.82423 13.7063 4.20647
-1.53986 2.6553 0.0174515
-1.55142 3.33689 0
-1.53662 4.30378 -0.0260914
-1.5218 5.95795 -0.0703814
-1.55128 2.68771 0.0887882
-1.54714 3.34888 0.0821719
-1.53146 4.33678 0.079583
-1.5186 5.98455 0.0706686
-1.4986 2.63835 -0.781723
-1.54269 2.68337 -0.42455
-1.54385 2.69503 -0.289854
-1.552 2.6931 -0.196295
-1.54765 3.34531 -0.255597
-1.53426 4.32782 -0.347045
-1.51327 6.01147 -0.504231
-1.55621 2.71227 -0.125624
-1.55333 3.38671 -0.17125
-1.54439 4.39515 -0.242054
-1.51684 6.09295 -0.365221
-1.55549 2.70354 -0.0537538
-1.55412 3.37312 -0.0853002
-1.53528 4.35004 -0.132531
-1.51679 6.0125 -0.215156
-1.01154 4.08319 -0.755773
-1.52494 6.15333 -0.712212
-1.50817 6.12651 0.25511
-1.64527 2.92854 0.19198
-1.50063 6.24071 0.517727
-2.07343 3.73594 0.520512
-1.49674 6.17253 1.14591
-7.8073 13.7881 4.22325
-1.54059 2.67797 0.0175666
-1.55233 3.36952 0
-1.53489 4.34684 -0.0263218
-1.52046 6.04081 -0.071303
-1.55186 2.71044 0.0893676
-1.54586 3.37698 0.0827347
-1.53113 4.38458 0.0803683
-1.51825 6.07229 0.0716477
-1.48938 2.64356 -0.781723
-1.54316 2.70593 -0.427303
-1.54183 2.71337 -0.291266
-1.55252 2.71581 -0.197572
-1.54637 3.37336 -0.257345
-1.53232 4.37079 -0.350086
-1.5126 6.09895 -0.511166
-1.55665 2.73504 -0.126437
-1.55185 3.41484 -0.17241
-1.54377 4.44297 -0.24441
-1.5157 6.18064 -0.370188
-1.55848 2.73064 -0.0541902
-1.5548 3.4058 -0.0859965
-1.5349 4.39785 -0.133835
-1.51501 6.09536 -0.217948
-0.997286 4.08669 -0.755773
-1.52342 6.24069 -0.72176
-1.50789 6.21914 0.258769
-1.64478 2.95169 0.193135
-1.50057 6.33807 0.525412
-2.07716 3.77357 0.524783
-1.49454 6.25908 1.1611
-7.78753 13.8658 4.23874
-1.54118 2.70068 0.0176818
-1.55096 3.39766 0
-1.53453 4.39466 -0.026581
-1.51855 6.12374 -0.0722245
-1.54982 2.72886 0.0898021
-1.5444 3.40511 0.0832975
-1.53049 4.43244 0.0811537
-1.5173 6.1601 0.0726268
-1.47777 2.64453 -0.78046
-1.54104 2.72422 -0.429367
-1.54216 2.73607 -0.293148
-1.55044 2.73422 -0.198529
-1.54698 3.40598 -0.259443
-1.53174 4.41851 -0.353507
-1.51133 6.18651 -0.518101
-1.55695 2.75784 -0.12725
-1.55223 3.44756 -0.173803
-1.54284 4.49084 -0.246765
-1.51397 6.26839 -0.375155
-1.55388 2.74476 -0.0543647
-1.55528 3.43853 -0.0866928
-1.5342 4.4457 -0.135138
-1.51267 6.17829 -0.22074
-0.984158 4.09494 -0.756666
-1.52245 6.33294 -0.731871
-1.50582 6.30699 0.262225
-1.64416 2.97488 0.194289
-1.49985 6.43551 0.533097
-2.05683 3.76774 0.522952
-1.49287 6.35048 1.17717
-7.76966 13.9478 4.25551
-1.54163 2.72343 0.017797
-1.55147 3.43038 0
-1.53385 4.44253 -0.0268402
-1.51727 6.21159 -0.0732036
-1.55013 2.75165 0.0903814
-1.54481 3.43783 0.0839729
-1.52953 4.48034 0.081939
-1.51576 6.24797 0.0736059
-1.46853 2.64967 -0.78046
-1.54125 2.74684 -0.432119
-1.54235 2.7588 -0.29503
-1.5507 2.75699 -0.199806
-1.54533 3.43409 -0.261191
-1.53245 4.471 -0.357308
-1.50948 6.27413 -0.525036
-1.55711 2.78067 -0.128064
-1.55241 3.48032 -0.175195
-1.5432 4.54348 -0.249381
-1.51279 6.36106 -0.380414
-1.5492 2.75888 -0.0545392
-1.5535 3.46674 -0.0872731
-1.53318 4.49361 -0.136442
-1.51211 6.27098 -0.223881
-0.970984 4.10314 -0.757558
-1.52087 6.42525 -0.741981
-1.5043 6.39977 0.265883
-1.64339 2.99809 0.195444
-1.49847 6.53301 0.540782
-9.18543 16.9284 2.36335
-1.4939 6.45632 1.19593
-7.74898 14.0255 4.271
-1.54194 2.74622 0.0179122
-1.54972 3.45858 0
-1.53447 4.49518 -0.0271282
-1.51539 6.2995 -0.0741827
-1.55029 2.77448 0.0909608
-1.54298 3.46603 0.0845357
-1.52825 4.52828 0.0827244
-1.51363 6.33591 0.074585
-1.45927 2.65478 -0.78046
-1.54131 2.7695 -0.434871
-1.54239 2.78156 -0.296912
-1.55083 2.7798 -0.201083
-1.54553 3.46679 -0.263289
-1.53122 4.51882 -0.360729
-1.50703 6.36181 -0.531972
-1.55713 2.80354 -0.128877
-1.55238 3.51312 -0.176587
-1.54162 4.59145 -0.251737
-1.51099 6.4538 -0.385673
-1.53956 2.76427 -0.0545392
-1.55358 3.49955 -0.0879694
-1.53344 4.54629 -0.13789
-1.51092 6.36375 -0.227022
-0.956656 4.1065 -0.757558
-1.49955 6.43536 -0.742543
-1.50215 6.49261 0.269542
-1.64248 3.02134 0.196599
-1.49751 6.63545 0.548871
-9.14511 16.9953 2.36824
-1.49421 6.56225 1.21469
-7.73481 14.116 4.29036
-1.5421 2.76904 0.0180274
-1.54982 3.49138 0
-1.53315 4.54315 -0.0273874
-1.51291 6.38747 -0.0751619
-1.55032 2.79734 0.0915402
-1.54299 3.49883 0.0852111
-1.52824 4.58102 0.083597
-1.51204 6.42877 0.0756217
-1.45 2.65986 -0.78046
-1.54124 2.79219 -0.437624
-1.5423 2.80436 -0.298794
-1.55081 2.80264 -0.202359
-1.54553 3.49953 -0.265387
-1.53126 4.57142 -0.364531
-1.50849 6.46897 -0.540539
-1.55701 2.82645 -0.12969
-1.55214 3.54596 -0.177979
-1.54129 4.6442 -0.254353
-1.50967 6.55147 -0.391225
-1.54445 2.79585 -0.0550628
-1.55344 3.5324 -0.0886658
-1.53178 4.5943 -0.139194
-1.51023 6.46146 -0.230338
-0.943409 4.11461 -0.75845
-1.47819 6.4454 -0.743104
-1.50048 6.59038 0.273405
-1.64142 3.04461 0.197754
-1.49586 6.73796 0.556961
-9.11845 17.0884 2.37678
-1.49487 6.67306 1.23434
-7.71088 14.1896 4.30456
-1.5397 2.78752 0.0181138
-1.54972 3.52422 0
-1.53309 4.5959 -0.0276753
-1.51211 6.48525 -0.0762562
-1.55021 2.82024 0.0921195
-1.54279 3.53167 0.0858865
-1.52632 4.62906 0.0843824
-1.50982 6.5217 0.0766584
-1.4407 2.6649 -0.78046
-1.53864 2.81057 -0.439688
-1.54207 2.82719 -0.300676
-1.55065 2.82552 -0.203636
-1.54331 3.52775 -0.267135
-1.53095 4.62407 -0.368332
-1.50812 6.57135 -0.548698
-1.55434 2.84501 -0.1303
-1.55169 3.57885 -0.179372
-1.54061 4.697 -0.25697
-1.50769 6.64921 -0.396776
-1.54914 2.82751 -0.0555864
-1.55309 3.56529 -0.0893621
-1.53136 4.64709 -0.140642
-1.50888 6.55923 -0.233653
-0.929041 4.11788 -0.75845
-1.45895 6.46507 -0.744789
-1.50031 6.69798 0.277673
-1.64023 3.06792 0.198908
-1.4967 6.85514 0.566263
-9.09358 17.1859 2.38593
-1.49688 6.79356 1.25577
-7.65901 14.2122 4.30327
-1.53961 2.8104 0.018229
-1.5494 3.55711 0
-1.53111 4.64397 -0.0279345
-1.51286 6.59283 -0.0774657
-1.54996 2.84317 0.0926989
-1.54237 3.56455 0.0865619
-1.52562 4.6819 0.085255
-1.50807 6.61957 0.0777527
-1.43139 2.66992 -0.78046
-1.5383 2.83331 -0.44244
-1.54169 2.85005 -0.302559
-1.55035 2.84843 -0.204913
-1.5429 3.56057 -0.269233
-1.53184 4.68151 -0.372513
-1.50815 6.67868 -0.557265
-1.55395 2.86797 -0.131113
-1.55103 3.61177 -0.180764
-1.53959 4.74985 -0.259587
-1.50721 6.75675 -0.402912
-1.55363 2.85923 -0.0561099
-1.55253 3.59822 -0.0900584
-1.53059 4.69993 -0.142091
-1.50796 6.66195 -0.237143
-0.914661 4.1211 -0.75845
-1.43423 6.46042 -0.743666
-1.50263 6.82028 0.282552
-1.64123 3.09566 0.200352
-1.49673 6.97241 0.575566
-9.04507 17.2395 2.38898
-1.49495 6.89973 1.27453
-7.60479 14.2303 4.30069
-1.53937 2.83332 0.0183442
-1.54888 3.59004 0
-1.53037 4.69683 -0.0282225
-1.51289 6.70051 -0.0786752
-1.54956 2.86613 0.0932783
-1.54175 3.59748 0.0872373
-1.52458 4.73479 0.0861276
-1.51002 6.73702 0.0790774
-1.42207 2.6749 -0.78046
-1.54018 2.86045 -0.445881
-1.54118 2.87294 -0.304441
-1.54991 2.87137 -0.206189
-1.54228 3.59343 -0.271331
-1.53081 4.73427 -0.376314
-1.50744 6.78608 -0.565832
-1.55342 2.89096 -0.131926
-1.55015 3.64474 -0.182156
-1.53821 4.80275 -0.262204
-1.50707 6.86925 -0.40934
-1.55554 2.88662 -0.0565463
-1.55373 3.63578 -0.0908708
-1.531 4.75759 -0.143684
-1.50743 6.76962 -0.240807
-0.90027 4.12426 -0.75845
-1.41167 6.46538 -0.743666
-1.50306 6.93781 0.287227
-1.64439 3.12785 0.202084
-1.49128 7.00115 1.29239
-7.55507 14.2568 4.30069
-1.53899 2.85626 0.0184594
-1.54814 3.623 0
-1.5308 4.7545 -0.0285393
-1.51218 6.80826 -0.0798847
-1.54903 2.88913 0.0938577
-1.54287 3.63504 0.0880252
-1.52318 4.78772 0.0870002
-1.51117 6.85457 0.080402
-1.41046 2.67557 -0.779197
-1.53955 2.88327 -0.448633
-1.54052 2.89587 -0.306323
-1.54933 2.89434 -0.207466
-1.54145 3.62632 -0.273429
-1.52943 4.78708 -0.380115
-1.50706 6.89842 -0.574807
-1.55274 2.91399 -0.132739
-1.54907 3.67774 -0.183548
-1.53649 4.8557 -0.264821
-1.5072 6.98671 -0.41606
-1.562 2.92286 -0.0571571
-1.55274 3.6688 -0.0915671
-1.52951 4.81054 -0.145132
-1.50723 6.88224 -0.244646
-0.885868 4.12738 -0.75845
-1.38909 6.47027 -0.743666
-1.64966 3.16453 0.204105
-1.90954 3.71103 0.508307
-7.50526 14.2831 4.30069
-1.53846 2.87924 0.0185746
-1.54719 3.656 0
-1.52934 4.80747 -0.0288273
-1.5118 6.92097 -0.0811518
-1.54835 2.91215 0.094437
-1.54181 3.66805 0.0887006
-1.52293 4.84548 0.0879601
-1.51151 6.9722 0.0817267
-1.40111 2.68048 -0.779197
-1.53877 2.90611 -0.451386
-1.53972 2.91882 -0.308205
-1.5486 2.91735 -0.208743
-1.54234 3.66385 -0.275877
-1.5277 4.83994 -0.383916
-1.50591 7.01085 -0.583782
-1.55193 2.93704 -0.133552
-1.54777 3.71077 -0.184941
-1.5359 4.91347 -0.267699
-1.50654 7.10425 -0.42278
-1.55179 2.9283 -0.0571571
-1.55346 3.70646 -0.0923795
-1.52917 4.8683 -0.146726
-1.50626 6.99495 -0.248485
-0.871456 4.13045 -0.75845
-1.3665 6.47508 -0.743666
-1.6524 3.19686 0.205837
-1.89431 3.71326 0.507697
-7.45312 14.3049 4.2994
-1.5378 2.90225 0.0186898
-1.54603 3.68904 0
-1.52902 4.86525 -0.0291441
-1.5096 7.02888 -0.0823613
-1.54753 2.9352 0.0950164
-1.54054 3.70109 0.089376
-1.52082 4.89851 0.0888327
-1.51002 7.08502 0.0829938
-1.39174 2.68535 -0.779197
-1.53786 2.92899 -0.454138
-1.53879 2.94181 -0.310087
-1.54774 2.94038 -0.21002
-1.54108 3.69683 -0.277975
-1.52711 4.8976 -0.388098
-1.50195 7.11359 -0.591941
-1.5533 2.96455 -0.134568
-1.54817 3.74846 -0.186565
-1.53493 4.97128 -0.270578
-1.50507 7.22188 -0.4295
-1.54856 2.94696 -0.0574189
-1.55395 3.74417 -0.0931919
-1.52844 4.92612 -0.148319
-1.50349 7.10284 -0.25215
-0.857032 4.13347 -0.75845
-1.34489 6.48468 -0.744228
-1.65721 3.23368 0.207858
-1.58582 7.85074 1.44691
-7.40315 14.3308 4.2994
-1.53699 2.92528 0.0188049
-1.54466 3.72212 0
-1.52832 4.92309 -0.0294608
-1.5077 7.14174 -0.0836284
-1.54424 2.95386 0.0954509
-1.54096 3.73879 0.0901639
-1.51982 4.95637 0.0897926
-1.50877 7.20282 0.0843185
-1.38236 2.69019 -0.779197
-1.5368 2.9519 -0.45689
-1.54 2.96924 -0.31244
-1.54905 2.96786 -0.211616
-1.5415 3.73446 -0.280422
-1.52613 4.95532 -0.392279
-1.50435 7.25056 -0.602956
-1.55218 2.98767 -0.135381
-1.54643 3.78157 -0.187957
-1.53357 5.02915 -0.273456
-1.5038 7.34446 -0.436512
-1.5429 2.96121 -0.0575934
-1.55418 3.78193 -0.0940043
-1.52733 4.98399 -0.149912
-1.50302 7.22548 -0.256338
-0.842599 4.13643 -0.75845
-1.32225 6.48933 -0.744228
-1.58151 7.8299 0.32341
-1.66179 3.27057 0.209879
-8.41727 16.7475 2.29989
-1.56317 7.88036 1.45137
-7.35087 14.3523 4.29811
-1.53836 2.95278 0.0189489
-1.54498 3.75986 0
-1.52724 4.98098 -0.0297776
-1.50705 7.26447 -0.0850106
-1.54315 2.97697 0.0960303
-1.54114 3.77653 0.0909519
-1.51988 5.01907 0.0908398
-1.50672 7.32069 0.0856432
-1.37296 2.695 -0.779197
-1.53789 2.97923 -0.460331
-1.53876 2.99229 -0.314322
-1.54788 2.99096 -0.212892
-1.54168 3.77213 -0.28287
-1.52476 5.01309 -0.39646
-1.50482 7.38274 -0.613562
-1.55093 3.01082 -0.136195
-1.54636 3.81935 -0.189582
-1.53326 5.09185 -0.276596
-1.50267 7.47202 -0.443817
-1.54176 2.98433 -0.0579425
-1.55418 3.81973 -0.0948167
-1.52727 5.04671 -0.15165
-1.50372 7.35799 -0.260875
-0.827196 4.13452 -0.757558
-1.30056 6.49878 -0.744789
-4.66647 23.5825 0.976532
-1.66388 3.30308 0.211611
-8.7035 45.2944 3.74017
-8.33883 16.7368 2.2944
-1.75304 9.00622 1.65858
-7.29854 14.3736 4.29682
-1.53726 2.97589 0.0190641
-1.54317 3.79301 0
-1.52577 5.03892 -0.0300944
-1.50656 7.39217 -0.0864505
-1.54421 3.00454 0.0967545
-1.5392 3.80969 0.0916273
-1.51808 5.07703 0.0917996
-1.50288 7.43373 0.0869102
-1.36355 2.69978 -0.779197
-1.53653 3.0022 -0.463083
-1.53965 3.01979 -0.316675
-1.54657 3.01409 -0.214169
-1.53974 3.80522 -0.284968
-1.52588 5.08046 -0.401402
-1.50438 7.51501 -0.624169
-1.55181 3.03844 -0.137211
-1.54604 3.85717 -0.191206
-1.53396 5.1594 -0.279998
-1.50163 7.60456 -0.451413
-1.54277 3.01192 -0.0583788
-1.55392 3.85759 -0.095629
-1.5268 5.10948 -0.153388
-1.5035 7.49059 -0.265412
-0.812758 4.13738 -0.757558
-1.27786 6.50328 -0.744789
-7.84792 40.4207 1.67376
-1.66576 3.33564 0.213343
-8.55826 45.3931 3.74583
-8.26057 16.7258 2.28891
-1.71239 8.96395 1.64965
-7.24398 14.3903 4.29424
-1.53829 3.00347 0.0192081
-1.54301 3.83083 0
-1.52677 5.1065 -0.0304688
-1.50618 7.52487 -0.087948
-1.54282 3.02771 0.0973339
-1.5389 3.84753 0.0924152
-1.51732 5.13984 0.0928468
-1.50409 7.57626 0.0885229
-1.35411 2.70452 -0.779197
-1.53729 3.0296 -0.466523
-1.54037 3.04734 -0.319028
-1.54512 3.03725 -0.215446
-1.53945 3.84298 -0.287415
-1.52513 5.14312 -0.405963
-1.504 7.65226 -0.635184
-1.55251 3.06611 -0.138227
-1.54732 3.89968 -0.193062
-1.53279 5.22222 -0.283138
-1.50157 7.74698 -0.459594
-1.54587 3.04401 -0.0589023
-1.55343 3.89548 -0.0964414
-1.5245 5.16751 -0.154982
-1.50238 7.62328 -0.269949
-0.798311 4.1402 -0.757558
-1.25422 6.50282 -0.744228
-1.65922 8.68525 0.35817
-1.66743 3.36826 0.215075
-8.2196 16.7901 2.29379
-1.66845 8.90217 1.63715
-7.19586 14.4198 4.29553
-1.53916 3.03109 0.0193521
-1.54261 3.8687 0
-1.5259 5.16935 -0.0308144
-1.50488 7.65765 -0.0894455
-1.54355 3.05537 0.0980581
-1.53836 3.8854 0.0932032
-1.51753 5.20751 0.0939812
-1.50337 7.71398 0.0900779
-1.34466 2.70923 -0.779197
-1.53563 3.05263 -0.469276
-1.53867 3.07049 -0.32091
-1.54578 3.06488 -0.217042
-1.54076 3.88541 -0.290212
-1.52536 5.21062 -0.410905
-1.50173 7.7847 -0.645791
-1.55079 3.08935 -0.13904
-1.5465 3.93759 -0.194687
-1.5326 5.28989 -0.28654
-1.50054 7.88949 -0.467775
-1.54651 3.07169 -0.0593387
-1.55268 3.93342 -0.0972538
-1.5246 5.23518 -0.156865
-1.50035 7.75605 -0.274486
-0.783854 4.14296 -0.757558
-1.23151 6.50716 -0.744228
-1.62063 8.64679 0.356341
-1.66889 3.40093 0.216807
-1.59951 8.79605 0.72239
-7.13905 14.4319 4.29165
-1.53759 3.05429 0.0194673
-1.54196 3.90661 0
-1.52602 5.23705 -0.0311887
-1.50268 7.79051 -0.090943
-1.54411 3.08306 0.0987823
-1.53757 3.92332 0.0939911
-1.51591 5.27043 0.0950283
-1.50264 7.8567 0.0916906
-1.33306 2.70957 -0.777934
-1.53606 3.08012 -0.472716
-1.53905 3.09811 -0.323263
-1.54403 3.08809 -0.218318
-1.53996 3.92326 -0.29266
-1.52375 5.27339 -0.415466
-1.50133 7.9319 -0.657621
-1.55117 3.11709 -0.140057
-1.54724 3.9802 -0.196543
-1.53195 5.35762 -0.289942
-1.49945 8.037 -0.476248
-1.54698 3.09942 -0.059775
-1.55352 3.97606 -0.0981822
-1.52425 5.30292 -0.158748
-1.49742 7.8889 -0.279023
-0.769388 4.14567 -0.757558
-1.20789 6.50653 -0.743666
-1.60934 8.75559 0.36061
-1.66796 3.42916 0.218251
-8.33253 46.8885 3.86192
-1.60974 8.93297 1.64072
-1.53812 3.08199 0.0196113
-1.54107 3.94456 0
-1.52568 5.30482 -0.0315631
-1.50142 7.93327 -0.0925556
-1.54448 3.11079 0.0995065
-1.53654 3.96128 0.0947791
-1.51524 5.33822 0.0961628
-1.4991 7.98967 0.093188
-1.32359 2.71421 -0.777934
-1.5363 3.10764 -0.476157
-1.53926 3.12578 -0.325615
-1.54436 3.1158 -0.219914
-1.53891 3.96115 -0.295108
-1.52309 5.34101 -0.420408
-1.50173 8.089 -0.670268
-1.54914 3.14039 -0.14087
-1.5459 4.0182 -0.198167
-1.53085 5.42541 -0.293344
-1.50003 8.19932 -0.485598
-1.54727 3.12718 -0.0602113
-1.55226 4.01408 -0.0989946
-1.5248 5.37553 -0.160775
-1.49721 8.04147 -0.284258
-0.754912 4.14833 -0.757558
-1.18428 6.50582 -0.743104
-1.66685 3.45743 0.219694
-8.16796 46.9124 3.86151
-1.65316 3.47803 0.468643
-1.57769 8.93369 1.63983
-7.03601 14.477 4.29036
-1.53625 3.10525 0.0197265
-1.53993 3.98255 0
-1.52488 5.37264 -0.0319375
-1.50009 8.08104 -0.0942259
-1.54469 3.13857 0.100231
-1.53526 3.99928 0.095567
-1.51545 5.41087 0.0973844
-1.49915 8.1473 0.0949735
-1.31411 2.71881 -0.777934
-1.53638 3.1352 -0.479597
-1.53929 3.15348 -0.327968
-1.54672 3.14802 -0.221829
-1.53762 3.99908 -0.297555
-1.52332 5.41349 -0.425729
-1.50373 8.26091 -0.684138
-1.54918 3.16821 -0.141886
-1.5461 4.06091 -0.200024
-1.53063 5.49807 -0.297007
-1.49949 8.36174 -0.494948
-1.54739 3.15499 -0.0606476
-1.55076 4.05215 -0.099807
-1.52352 5.4434 -0.162658
-1.49686 8.19905 -0.289667
-0.740427 4.15094 -0.757558
-1.1607 6.50502 -0.742543
-1.66556 3.48573 0.221138
-1.63372 9.55416 0.783466
-1.64313 3.48827 0.469254
-1.55903 9.01187 1.65323
-1.53645 3.13302 0.0198705
-1.53855 4.02059 0
-1.52498 5.44534 -0.0323407
-1.50043 8.24365 -0.0960689
-1.54252 3.1619 0.10081
-1.53551 4.04199 0.0964675
-1.51384 5.47878 0.0985188
-1.49724 8.30011 0.0967013
-1.30461 2.72338 -0.777934
-1.53411 3.15835 -0.48235
-1.53915 3.18122 -0.330321
-1.54668 3.17581 -0.223425
-1.53786 4.04171 -0.300352
-1.52174 5.48123 -0.430671
-1.50279 8.42311 -0.697193
-1.54904 3.19605 -0.142903
-1.54426 4.09899 -0.201648
-1.52992 5.5708 -0.300671
-1.4987 8.52918 -0.504589
-1.54734 3.18284 -0.0610839
-1.55079 4.09493 -0.100735
-1.52312 5.51613 -0.164686
-1.4963 8.36164 -0.295251
-0.725933 4.1535 -0.757558
-1.13798 6.50904 -0.742543
-1.66014 9.59907 0.39476
-1.6641 3.51407 0.222581
-1.5979 9.54505 0.782253
-1.65199 3.53892 0.475356
-1.53412 9.05606 1.66037
-1.64903 3.46389 1.01451
-1.53647 3.16083 0.0200145
-1.53869 4.06333 0
-1.52325 5.51329 -0.0327151
-1.49789 8.39651 -0.0977968
-1.54239 3.18974 0.101534
-1.53548 4.08475 0.097368
-1.5131 5.55156 0.0997405
-1.49601 8.46285 0.0985443
-1.29509 2.72792 -0.777934
-1.53385 3.18598 -0.48579
-1.53883 3.209 -0.332673
-1.54647 3.20364 -0.225021
-1.53606 4.07972 -0.3028
-1.52101 5.55383 -0.435992
-1.50245 8.59523 -0.711063
-1.54873 3.22394 -0.143919
-1.54392 4.14179 -0.203504
-1.52872 5.64358 -0.304334
-1.49591 8.69178 -0.513939
-1.5471 3.21072 -0.0615202
-1.54878 4.13308 -0.101548
-1.52222 5.58893 -0.166714
-1.49548 8.52926 -0.301009
-0.710607 4.15116 -0.756666
-1.11526 6.51297 -0.742543
-1.61581 9.54076 0.392117
-1.66246 3.54243 0.224024
-1.56938 9.58008 0.784679
-1.65217 3.57168 0.479017
-1.5049 9.07592 1.66305
-1.64106 3.47836 1.01709
-1.53632 3.18868 0.0201584
-1.53679 4.10145 0
-1.52239 5.58611 -0.0331182
-1.49689 8.56423 -0.0996974
-1.54208 3.21762 0.102258
-1.53343 4.12288 0.098156
-1.51186 5.6244 0.100962
-1.49452 8.63061 0.100445
-1.28556 2.73242 -0.777934
-1.53342 3.21365 -0.48923
-1.53834 3.23681 -0.335026
-1.54608 3.23151 -0.226617
-1.53576 4.12244 -0.305597
-1.5198 5.62649 -0.441314
-1.49674 8.74288 -0.722894
-1.54609 3.24736 -0.144732
-1.54329 4.18464 -0.205361
-1.52832 5.72125 -0.30826
-1.49614 8.87909 -0.52475
-1.54237 3.22962 -0.061782
-1.54826 4.17595 -0.102476
-1.52084 5.66179 -0.168742
-1.49435 8.70189 -0.306942
-0.695305 4.14876 -0.755773
-1.09251 6.51682 -0.742543
-1.58983 9.59071 0.393947
-1.66064 3.57083 0.225468
-1.47635 9.10055 1.66662
-1.64943 3.5278 1.03
-1.53599 3.21656 0.0203024
-1.53639 4.14428 0
-1.52103 5.659 -0.0335214
-1.49556 8.73697 -0.101656
-1.5416 3.24554 0.102983
-1.53285 4.16573 0.0990565
-1.51013 5.69731 0.102184
-1.49187 8.79846 0.102346
-1.27397 2.73251 -0.776672
-1.53282 3.24135 -0.492671
-1.53767 3.26466 -0.337379
-1.54552 3.25941 -0.228213
-1.53518 4.16521 -0.308394
-1.5181 5.69921 -0.446636
-1.48509 8.8611 -0.732277
-1.54544 3.27531 -0.145749
-1.54239 4.22753 -0.207217
-1.52613 5.79415 -0.311923
-1.49669 9.07635 -0.536144
-1.53967 3.25305 -0.0621311
-1.54747 4.21886 -0.103405
-1.51896 5.73471 -0.17077
-1.49369 8.88447 -0.313224
-0.680029 4.14631 -0.754881
-1.06976 6.5206 -0.742543
-1.56192 9.63072 0.395369
-1.66073 3.60379 0.2272
-1.6477 10.5214 0.861125
-1.656 3.64634 0.48756
-1.46915 9.26114 1.6952
-1.6534 3.56857 1.04032
-1.53548 3.24448 0.0204464
-1.53571 4.18717 0
-1.51919 5.73194 -0.0339246
-1.49223 8.90487 -0.103556
-1.54094 3.27349 0.103707
-1.532 4.20862 0.099957
-1.51044 5.77994 0.10358
-1.48888 8.97132 0.104304
-1.26442 2.73694 -0.776672
-1.53204 3.26908 -0.496111
-1.53683 3.29255 -0.339731
-1.54478 3.28735 -0.229809
-1.53603 4.21271 -0.311541
-1.51717 5.77681 -0.452337
-1.45495 8.87115 -0.732685
-1.54461 3.30329 -0.146765
-1.5412 4.27047 -0.209074
-1.52595 5.87678 -0.31611
-1.49589 9.27372 -0.547539
-1.53044 3.26292 -0.0622183
-1.5481 4.26652 -0.104449
-1.51786 5.81252 -0.172942
-1.49258 9.07208 -0.319681
-0.666325 4.15351 -0.755773
-1.04777 6.5292 -0.743104
-1.6627 3.64133 0.229221
-1.61472 10.5518 0.863147
-1.4661 9.45583 1.73004
-1.65913 3.61381 1.05194
-1.5348 3.27244 0.0205904
-1.53645 4.2348 0
-1.51811 5.80978 -0.0343566
-1.49258 9.10246 -0.105803
-1.54222 3.30601 0.104576
-1.53087 4.25156 0.100858
-1.51018 5.86264 0.104976
-1.4871 9.15908 0.106435
-1.25284 2.73694 -0.775409
-1.53108 3.29685 -0.499552
-1.53791 3.32498 -0.342555
-1.54597 3.31984 -0.231724
-1.53487 4.25558 -0.314339
-1.51697 5.8593 -0.458419
-1.42634 8.89094 -0.733909
-1.54571 3.33584 -0.147985
-1.54142 4.31815 -0.211162
-1.52522 5.95947 -0.320297
-1.4914 9.4564 -0.558058
-1.5423 3.31808 -0.0631782
-1.54672 4.30953 -0.105378
-1.51623 5.89039 -0.175115
-1.49176 9.26966 -0.326486
-0.652578 4.16067 -0.756666
-1.02498 6.53281 -0.743104
-1.63267 10.535 0.432162
-1.66236 3.67438 0.230953
-1.57567 10.5425 0.861934
-1.46684 9.68466 1.77112
-1.65252 3.63276 1.05581
-1.53394 3.30043 0.0207344
-1.53519 4.27778 0
-1.51651 5.88767 -0.0347886
-1.48999 9.29029 -0.107934
-1.5412 3.33404 0.1053
-1.53113 4.29925 0.101871
-1.50937 5.94541 0.106372
-1.48637 9.36174 0.108739
-1.24328 2.7413 -0.775409
-1.53203 3.32915 -0.50368
-1.5367 3.35294 -0.344907
-1.54486 3.34786 -0.23332
-1.53511 4.30318 -0.317485
-1.51621 5.94186 -0.464501
-1.39529 8.89586 -0.733909
-1.54452 3.3639 -0.149001
-1.53965 4.36117 -0.213018
-1.52392 6.04222 -0.324484
-1.48718 9.64902 -0.56916
-1.5412 3.34613 -0.0636145
-1.54674 4.35729 -0.106422
-1.5153 5.97316 -0.177432
-1.4888 9.4624 -0.333117
-0.63879 4.16779 -0.757558
-1.00217 6.53635 -0.743104
-1.59589 10.5407 0.432162
-1.66386 3.71203 0.232974
-1.5403 10.5578 0.862743
-2.76174 6.24509 0.834771
-1.46171 9.8844 1.80685
-6.64497 14.7031 4.30069
-1.5329 3.32846 0.0208784
-1.53532 4.32551 0
-1.51561 5.97047 -0.0352493
-1.48688 9.48314 -0.110122
-1.54208 3.36664 0.106169
-1.52942 4.34229 0.102771
-1.508 6.02824 0.107769
-1.48501 9.56945 0.1111
-1.23171 2.74121 -0.774146
-1.53277 3.3615 -0.507809
-1.53531 3.38093 -0.34726
-1.54358 3.3759 -0.234916
-1.53503 4.35084 -0.320632
-1.51611 6.02931 -0.470963
-1.36574 8.91053 -0.734725
-1.54522 3.39654 -0.150221
-1.53925 4.40896 -0.215107
-1.52327 6.12989 -0.328932
-1.48606 9.87135 -0.582016
-1.54409 3.3833 -0.0642254
-1.54644 4.40511 -0.107467
-1.51381 6.056 -0.17975
-1.48603 9.66511 -0.340097
-0.624238 4.16999 -0.757558
-0.979345 6.53981 -0.743104
-1.55836 10.5412 0.431959
-1.66309 3.74517 0.234706
-1.50134 10.5484 0.861529
-2.72995 6.23198 0.83172
-1.45869 10.1086 1.84704
-6.58768 14.7129 4.29682
